# .PCD v0.7 - Point Cloud Data file format
VERSION 0.7
FIELDS x y z
SIZE 4 4 4
TYPE F F F
COUNT 1 1 1
WIDTH 1720
HEIGHT 1
VIEWPOINT 0 0 0 1 0 0 0
POINTS 1720
DATA ascii
45.7146 55.839001 201.39999
45.125599 55.7854 201.20001
44.6264 55.8428 201.39999
43.994801 55.733799 201
43.4086 55.680401 200.79999
42.9086 55.737801 201
42.407799 55.7952 201.20001
41.905602 55.852596 201.39999
41.361401 55.854599 201.39999
40.7766 55.801201 201.20001
40.192802 55.747597 201
39.649601 55.749599 201
39.106197 55.751598 201
38.639599 55.864601 201.39999
38.0952 55.8666 201.39999
37.550602 55.868603 201.39999
37.006199 55.870598 201.39999
36.4254 55.8172 201.20001
35.916798 55.874599 201.39999
35.3722 55.876602 201.39999
34.862 55.933998 201.60001
34.3508 55.9916 201.79999
33.805 55.993401 201.79999
33.259003 55.995399 201.79999
32.712997 55.997402 201.79999
32.198799 56.054802 202
31.652201 56.056797 202
31.0748 56.003201 201.79999
30.4984 55.9496 201.60001
29.952801 55.951397 201.60001
29.436201 56.008797 201.79999
28.889799 56.010597 201.79999
28.343599 56.012398 201.79999
27.797201 56.014198 201.79999
27.250799 56.015999 201.79999
26.757198 56.128799 202.20001
26.235601 56.186001 202.39999
25.6366 56.076801 202
25.089401 56.0784 202
24.5422 56.080002 202
24.018801 56.137199 202.20001
23.447599 56.083401 202
22.923 56.1404 202.20001
22.3972 56.197601 202.39999
21.805599 56.088001 202
21.237 56.034 201.79999
20.6696 55.980003 201.60001
20.163198 56.0924 202
19.634979 56.149399 202.20001
19.1057 56.206398 202.39999
18.55698 56.207802 202.39999
18.026001 56.264599 202.60001
17.493919 56.3214 202.80002
16.960699 56.378197 203
16.394039 56.323803 202.80002
15.84404 56.325001 202.80002
15.27894 56.270599 202.60001
14.72942 56.271797 202.60001
14.16588 56.217403 202.39999
13.616859 56.218399 202.39999
13.080721 56.274998 202.60001
12.56818 56.4426 203.20001
12.00508 56.388004 203
11.4543 56.388802 203
10.903521 56.389599 203
10.3833 56.557201 203.60001
9.8211803 56.502403 203.39999
9.2692194 56.502998 203.39999
8.7086792 56.448196 203.20001
8.1652594 56.504398 203.39999
7.6207399 56.5606 203.60001
6.5219998 56.617199 203.80002
5.9688601 56.617802 203.80002
5.4103999 56.562603 203.60001
4.8673201 56.674202 204
4.30936 56.618999 203.80002
3.7524998 56.563599 203.60001
3.1998401 56.563995 203.60001
2.64978 56.619801 203.80002
2.09658 56.620003 203.80002
1.543364 56.620003 203.80002
0.98917598 56.564598 203.60001
0.43650201 56.564598 203.60001
-0.1161754 56.564598 203.60001
-0.66950798 56.620197 203.80002
-1.221526 56.564598 203.60001
-1.7741981 56.564404 203.60001
-2.32458 56.508797 203.39999
-2.8795199 56.563995 203.60001
-3.4389203 56.674999 204
-3.98874 56.619198 203.80002
-4.5374799 56.563198 203.60001
-5.0850997 56.507404 203.39999
-5.6371799 56.506802 203.39999
-6.1831603 56.450802 203.20001
-6.7280202 56.394798 203
-7.2861404 56.449802 203.20001
-7.8299003 56.3936 203
-8.38908 56.448601 203.20001
-8.9580994 56.559002 203.60001
-9.5012598 56.5028 203.39999
-10.04332 56.446396 203.20001
-10.58428 56.390202 203
-11.157021 56.500401 203.39999
-11.7204 56.555004 203.60001
-12.272779 56.554199 203.60001
-12.81254 56.497597 203.39999
-13.3512 56.4412 203.20001
-13.90242 56.440197 203.20001
-14.4536 56.438999 203.20001
-14.990001 56.382401 203
-15.55588 56.436802 203.20001
-16.122841 56.491203 203.39999
-16.690821 56.545597 203.60001
-17.242939 56.544399 203.60001
-17.77754 56.487602 203.39999
-18.329041 56.486202 203.39999
-18.899059 56.540401 203.60001
-19.451021 56.538998 203.60001
-20.003 56.537598 203.60001
-20.5548 56.536198 203.60001
-21.148201 56.645798 204
-21.722401 56.699799 204.20001
-22.275799 56.698196 204.20001
-22.784401 56.585598 203.80002
-23.2908 56.473 203.39999
-23.8654 56.526798 203.60001
-24.4648 56.636398 204
-25.017601 56.634598 204
-25.5952 56.688396 204.20001
-26.148201 56.686802 204.20001
-26.7274 56.740601 204.39999
-27.2544 56.683201 204.20001
-27.8346 56.737 204.39999
-28.415798 56.790604 204.60001
-28.969601 56.788803 204.60001
-29.494801 56.731403 204.39999
-30.048 56.729603 204.39999
-30.6014 56.7276 204.39999
-31.123999 56.6702 204.20001
-31.6766 56.6684 204.20001
-32.229198 56.666397 204.20001
-32.846001 56.775398 204.60001
-33.432201 56.828999 204.8
-34.0196 56.882603 205
-34.5742 56.8806 205
-35.094402 56.822998 204.8
-35.5438 56.654602 204.20001
-36.131599 56.708 204.39999
-36.7202 56.761597 204.60001
-37.346397 56.870399 205
-37.863602 56.813004 204.8
-38.4174 56.810997 204.8
-38.971001 56.8088 204.8
-39.524799 56.806801 204.8
-40.0784 56.804802 204.8
-40.6716 56.8582 205
-41.185398 56.8008 204.8
-41.6982 56.743198 204.60001
-42.250999 56.741203 204.60001
-42.804001 56.739201 204.60001
-43.3568 56.737202 204.60001
-43.909599 56.735199 204.60001
-44.462402 56.733204 204.60001
-45.0592 56.7868 204.8
-45.6124 56.784801 204.8
-46.2108 56.838203 205
-46.7188 56.780796 204.8
-47.271999 56.778996 204.8
-47.778599 56.7216 204.60001
-48.3312 56.719799 204.60001
-48.979397 56.828804 205
-49.5812 56.882401 205.20001
-50.086601 56.825203 205
-50.640202 56.823402 205
-51.243801 56.876999 205.20001
-51.8484 56.930603 205.39999
-52.403198 56.928997 205.39999
-52.906197 56.871803 205.20001
-53.512402 56.925602 205.39999
-54.014404 56.868599 205.20001
-54.621799 56.922401 205.39999
-55.176399 56.920998 205.39999
-55.7854 56.9748 205.60001
-56.285797 56.917999 205.39999
-56.840599 56.916599 205.39999
-57.395203 56.915199 205.39999
-58.006401 56.9692 205.60001
-58.561802 56.967999 205.60001
-59.174599 57.022202 205.8
-59.672398 56.965603 205.60001
-60.286404 57.019798 205.8
-60.8424 57.018799 205.8
-61.517799 57.128601 206.2
-62.134998 57.182999 206.39999
-62.692799 57.182003 206.39999
-63.250603 57.181198 206.39999
78.161797 55.406998 198
77.858002 55.572803 198.59999
77.395203 55.626797 198.8
76.931801 55.680801 199
76.313797 55.623001 198.8
75.697205 55.565399 198.59999
75.157394 55.563999 198.59999
74.693001 55.618401 198.8
74.376801 55.785 199.39999
73.835403 55.783802 199.39999
73.294197 55.782597 199.39999
72.680199 55.7258 199.2
72.139801 55.7248 199.2
71.599602 55.723999 199.2
71.201996 55.835197 199.60001
70.590195 55.778599 199.39999
70.049797 55.778004 199.39999
69.509598 55.777596 199.39999
69.107803 55.889202 199.8
68.566605 55.888802 199.8
67.957596 55.832798 199.60001
67.417198 55.8326 199.60001
66.876801 55.8326 199.60001
66.403198 55.888599 199.8
65.7966 55.832798 199.60001
65.321999 55.889 199.8
64.781601 55.889202 199.8
64.305405 55.945599 200
63.700802 55.889999 199.8
63.223797 55.946396 200
62.745796 56.002998 200.20001
62.266602 56.059601 200.39999
61.663403 56.004204 200.20001
61.183399 56.061001 200.39999
60.5812 56.005798 200.20001
60.040199 56.006599 200.20001
59.439804 55.951603 200
58.899601 55.952602 200
58.3592 55.953598 200
57.761002 55.898796 199.8
57.278599 55.955799 200
56.851799 56.069 200.39999
56.366802 56.126202 200.60001
55.825001 56.127399 200.60001
55.228001 56.0728 200.39999
54.686802 56.074203 200.39999
54.091602 56.0196 200.20001
53.497398 55.965 200
52.957199 55.966599 200
52.469601 56.023998 200.20001
51.980801 56.0816 200.39999
51.388199 56.027199 200.20001
50.898403 56.084801 200.39999
50.357002 56.086395 200.39999
49.915401 56.199997 200.79999
49.373001 56.201797 200.79999
48.782001 56.147404 200.60001
48.2402 56.149204 200.60001
47.745998 56.207001 200.79999
47.203602 56.208801 200.79999
46.6614 56.210602 200.79999
46.072998 56.156403 200.60001
45.621799 56.270199 201
45.034 56.216198 200.79999
44.4916 56.217999 200.79999
43.861599 56.107998 200.39999
43.320198 56.109798 200.39999
42.8214 56.167801 200.60001
42.3214 56.2258 200.79999
41.778801 56.2276 200.79999
41.236202 56.229599 200.79999
40.6936 56.231602 200.79999
40.110798 56.177597 200.60001
39.5686 56.1796 200.60001
39.026402 56.181599 200.60001
38.522602 56.239403 200.79999
37.979599 56.241398 200.79999
37.436802 56.243401 200.79999
36.930599 56.301395 201
36.351002 56.247402 200.79999
35.807999 56.249397 200.79999
35.264797 56.2514 200.79999
34.756401 56.3092 201
34.246799 56.367199 201.20001
33.736 56.425201 201.39999
33.1912 56.4272 201.39999
32.6786 56.485199 201.60001
32.165001 56.542999 201.79999
31.618999 56.545002 201.79999
30.980598 56.378799 201.20001
30.405798 56.3246 201
29.861799 56.326401 201
29.3468 56.384403 201.20001
28.8022 56.386204 201.20001
28.229401 56.331802 201
27.712801 56.389801 201.20001
27.167999 56.391399 201.20001
26.649601 56.4492 201.39999
26.129999 56.506996 201.60001
25.584 56.508797 201.60001
25.013199 56.454403 201.39999
24.4676 56.456001 201.39999
23.921999 56.457603 201.39999
23.399601 56.5154 201.60001
22.853399 56.516998 201.60001
22.3514 56.6306 202
21.760801 56.519997 201.60001
21.1936 56.465401 201.39999
20.6476 56.466801 201.39999
20.121799 56.524403 201.60001
19.575319 56.525803 201.60001
19.047699 56.583202 201.79999
18.4823 56.5284 201.60001
17.971321 56.642002 202
17.44088 56.699402 202.20001
16.90934 56.756599 202.39999
16.3605 56.757801 202.39999
15.81164 56.758999 202.39999
15.24764 56.704201 202.20001
14.7138 56.761402 202.39999
14.136841 56.650196 202
13.588921 56.651199 202
13.0539 56.708401 202.20001
12.530141 56.8214 202.60001
11.98052 56.822403 202.60001
11.41958 56.7672 202.39999
10.8812 56.8242 202.60001
10.3519 56.937199 203
9.8010998 56.937801 203
9.2502804 56.938599 203
8.69944 56.939201 203
8.15662 56.995998 203.20001
7.5976996 56.940598 203
7.0468001 56.9412 203
6.4958997 56.941597 203
5.9449801 56.9422 203
5.3993402 56.9986 203.20001
4.8526201 57.055199 203.39999
4.29634 56.999397 203.20001
3.7374601 56.887604 202.80002
3.1870201 56.887798 202.80002
2.6417799 57.000202 203.20001
2.0922999 57.056396 203.39999
1.540216 57.056599 203.39999
0.98715603 57.000603 203.20001
0.43561003 57.000603 203.20001
-0.1159382 57.000603 203.20001
-0.6688 57.112801 203.60001
-1.2214301 57.112801 203.60001
-1.77406 57.112598 203.60001
-2.3198199 56.944199 203
-2.8764799 57.056202 203.39999
-3.4319201 57.112003 203.60001
-3.98844 57.167797 203.80002
-4.5281997 56.999199 203.20001
-5.0696998 56.8866 202.80002
-5.62012 56.886204 202.80002
-6.1705003 56.885803 202.80002
-6.7208796 56.885399 202.80002
-7.27842 56.9408 203
-7.8215799 56.884201 202.80002
-8.3719206 56.883598 202.80002
-8.9310198 56.938999 203
-9.4725199 56.882202 202.80002
-10.03268 56.937599 203
-10.58346 56.936802 203
-11.1452 56.992001 203.20001
-11.708 57.047199 203.39999
-12.24774 56.9902 203.20001
-12.79898 56.989403 203.20001
-13.337059 56.932198 203
-13.874001 56.875198 202.80002
-14.42408 56.874199 202.80002
-14.98888 56.929199 203
-15.539419 56.928001 203
-16.121639 57.038998 203.39999
-16.673222 57.0378 203.39999
-17.24168 57.092602 203.60001
-17.776241 57.035202 203.39999
-18.3097 56.978001 203.20001
-18.86058 56.976597 203.20001
-19.392321 56.919201 203
-19.962238 56.973797 203.20001
-20.513 56.972401 203.20001
-21.1052 57.083 203.60001
-21.657 57.081596 203.60001
-22.208799 57.080002 203.60001
-22.760401 57.078396 203.60001
-23.2892 57.020802 203.39999
-23.840199 57.019199 203.39999
-24.415199 57.073601 203.60001
-24.9422 57.015999 203.39999
-25.5182 57.070396 203.60001
-26.044199 57.0126 203.39999
-26.647202 57.123001 203.80002
-27.1992 57.121201 203.80002
-27.805401 57.231598 204.20001
-28.3584 57.229797 204.20001
-28.883001 57.171799 204
-29.4352 57.169998 204
-30.0168 57.224201 204.20001
-30.569401 57.222401 204.20001
-31.0916 57.164402 204
-31.612799 57.1064 203.80002
-32.1642 57.104599 203.80002
-32.7798 57.214802 204.20001
-33.364998 57.268799 204.39999
-33.917999 57.2668 204.39999
-34.471001 57.265003 204.39999
-34.9552 57.150799 204
-35.472198 57.092796 203.80002
-36.023399 57.090801 203.80002
-36.610401 57.145 204
-37.198601 57.199001 204.20001
-37.713799 57.140999 204
-38.302799 57.195004 204.20001
-38.854797 57.193001 204.20001
-39.484001 57.303001 204.60001
-40.037201 57.301003 204.60001
-40.629803 57.355 204.8
-41.183399 57.353001 204.8
-41.696201 57.295002 204.60001
-42.166401 57.181 204.20001
-42.718201 57.178997 204.20001
-43.2276 57.121002 204
-43.864799 57.230995 204.39999
-44.3736 57.173 204.20001
-44.925201 57.170998 204.20001
-45.4324 57.113201 204
-46.073601 57.223202 204.39999
-46.671398 57.277401 204.60001
-47.223999 57.275402 204.60001
-47.7766 57.273602 204.60001
-48.329399 57.271801 204.60001
-48.882 57.269798 204.60001
-49.4828 57.323997 204.8
-50.036003 57.322197 204.8
-50.5396 57.264603 204.60001
-51.1922 57.374798 205
-51.695198 57.317196 204.8
-52.350403 57.427399 205.20001
-52.853001 57.369797 205
-53.458797 57.424198 205.20001
-53.960197 57.366596 205
-54.513802 57.365002 205
-55.013802 57.307602 204.8
-55.567001 57.306202 204.8
-56.120003 57.304798 204.8
-56.673199 57.303398 204.8
-57.282196 57.358002 205
-57.892399 57.412601 205.20001
-58.503597 57.4674 205.39999
-59.116001 57.522202 205.60001
-59.729397 57.577003 205.8
-60.343998 57.631802 206
-60.8414 57.574802 205.8
78.005997 55.8316 197.59999
77.546402 55.886002 197.8
77.0858 55.940403 198
76.701599 56.051399 198.39999
76.161995 56.049599 198.39999
75.622597 56.047798 198.39999
74.931801 55.933201 198
74.469002 55.988197 198.2
74.079803 56.099804 198.59999
73.614403 56.155003 198.8
73.001198 56.097401 198.59999
72.3162 55.983196 198.2
71.850998 56.038803 198.39999
71.456596 56.150799 198.8
71.060005 56.263 199.2
70.378403 56.149399 198.8
69.769402 56.092201 198.59999
69.231201 56.091797 198.59999
68.900597 56.260799 199.2
68.292397 56.203999 199
67.753395 56.2038 199
67.146996 56.146996 198.8
66.608795 56.146996 198.8
66.137199 56.2034 199
65.664604 56.260002 199.2
65.191002 56.316601 199.39999
64.7164 56.373398 199.60001
64.112198 56.3172 199.39999
63.508999 56.260998 199.2
63.0336 56.318005 199.39999
62.557201 56.374802 199.60001
61.955399 56.319 199.39999
61.354797 56.263203 199.2
60.877399 56.320202 199.39999
60.338402 56.320999 199.39999
59.859402 56.378399 199.60001
59.201199 56.266201 199.2
58.721798 56.323601 199.39999
58.183002 56.3246 199.39999
57.644398 56.325603 199.39999
57.105602 56.326801 199.39999
56.680401 56.4408 199.8
56.196999 56.4986 200
55.656601 56.499798 200
55.116398 56.500999 200
54.576199 56.502403 200
53.982002 56.447201 199.8
53.442402 56.448601 199.8
52.8498 56.3936 199.60001
52.363197 56.451397 199.8
51.771599 56.3964 199.60001
51.232601 56.397999 199.60001
50.642799 56.343002 199.39999
50.1544 56.401199 199.60001
49.615402 56.402802 199.60001
49.174603 56.517601 200
48.488598 56.349598 199.39999
48.0462 56.464397 199.8
47.554001 56.522602 200
47.1078 56.637402 200.39999
46.52 56.582802 200.20001
45.933399 56.528004 200
45.4384 56.586403 200.20001
44.852798 56.531601 200
44.312401 56.533401 200
43.728401 56.478798 199.8
43.2318 56.537201 200
42.734001 56.5956 200.20001
42.235199 56.654202 200.39999
41.693802 56.655998 200.39999
41.152199 56.658001 200.39999
40.529598 56.546803 200
40.028999 56.605202 200.20001
39.448402 56.550598 200
38.946598 56.6092 200.20001
38.405399 56.611198 200.20001
37.864201 56.612999 200.20001
37.360199 56.6716 200.39999
36.818401 56.673599 200.39999
36.2766 56.6754 200.39999
35.7346 56.677402 200.39999
35.1926 56.679398 200.39999
34.6506 56.681198 200.39999
34.108601 56.683201 200.39999
33.533001 56.628601 200.20001
33.024399 56.686996 200.39999
32.514599 56.745399 200.60001
32.035603 56.860603 201
31.429201 56.749199 200.60001
30.8554 56.694603 200.39999
30.282801 56.639801 200.20001
29.7708 56.698196 200.39999
29.228401 56.699997 200.39999
28.685799 56.701797 200.39999
28.1434 56.703598 200.39999
27.628401 56.761997 200.60001
27.085199 56.763603 200.60001
26.542 56.7654 200.60001
25.972801 56.710602 200.39999
25.455601 56.768799 200.60001
24.912199 56.770401 200.60001
24.368801 56.771999 200.60001
23.825399 56.773602 200.60001
23.282 56.7752 200.60001
22.7838 56.889999 201
22.239199 56.891602 201
21.7162 56.949799 201.20001
21.171001 56.951202 201.20001
20.625799 56.952602 201.20001
20.100399 57.010605 201.39999
19.535101 56.955399 201.20001
18.989719 56.956799 201.20001
18.4443 56.958199 201.20001
17.91666 57.015999 201.39999
17.38788 57.073997 201.60001
16.84128 57.075203 201.60001
16.278481 57.019798 201.39999
15.747979 57.077599 201.60001
15.23144 57.191998 202
14.68364 57.193001 202
14.1218 57.137402 201.79999
13.561 57.081802 201.60001
13.027101 57.139404 201.79999
12.50446 57.253803 202.20001
11.9678 57.311203 202.39999
11.40744 57.2556 202.20001
10.84816 57.199799 202
10.31032 57.257198 202.20001
9.7617407 57.257999 202.20001
9.2222404 57.315201 202.39999
8.6816397 57.372601 202.60001
8.1318998 57.373203 202.60001
7.5671802 57.260601 202.20001
7.0115604 57.204403 202
6.4634004 57.204998 202
5.9210801 57.261997 202.20001
5.3776798 57.319199 202.39999
4.8331599 57.376202 202.60001
4.28332 57.376598 202.60001
3.73348 57.376801 202.60001
3.1836402 57.377201 202.60001
2.6389799 57.490601 203
2.0859599 57.4342 202.80002
1.535552 57.434399 202.80002
0.98513597 57.434399 202.80002
0.43471801 57.434399 202.80002
-0.115701 57.434399 202.80002
-0.66611999 57.434399 202.80002
-1.216538 57.434399 202.80002
-1.7669519 57.4342 202.80002
-2.3127999 57.320797 202.39999
-2.8649402 57.377201 202.60001
-3.4147999 57.376999 202.60001
-3.9724801 57.489998 203
-4.5100203 57.319801 202.39999
-5.0543199 57.262802 202.20001
-5.5975003 57.205803 202
-6.14568 57.2052 202
-6.70048 57.261402 202.20001
-7.2491803 57.260799 202.20001
-7.8055596 57.317001 202.39999
-8.3465004 57.259602 202.20001
-8.8951607 57.258999 202.20001
-9.4531202 57.314999 202.39999
-9.9923801 57.257599 202.20001
-10.55138 57.3134 202.39999
-11.10048 57.312603 202.39999
-11.64956 57.311798 202.39999
-12.18656 57.2542 202.20001
-12.735041 57.253403 202.20001
-13.2835 57.252399 202.20001
-13.845619 57.307999 202.39999
-14.380341 57.250397 202.20001
-14.94348 57.305801 202.39999
-15.49236 57.304798 202.39999
-16.05706 57.360203 202.60001
-16.59004 57.302399 202.39999
-17.15576 57.3578 202.60001
-17.68758 57.300003 202.39999
-18.2363 57.298599 202.39999
-18.803539 57.353996 202.60001
-19.333639 57.296001 202.39999
-19.88224 57.294601 202.39999
-20.410601 57.236599 202.20001
-20.958599 57.235001 202.20001
-21.5492 57.346802 202.60001
-22.120001 57.402004 202.80002
-22.691799 57.457001 203
-23.2188 57.398804 202.80002
-23.7684 57.397198 202.80002
-24.3176 57.395599 202.80002
-24.8426 57.337399 202.60001
-25.416401 57.392399 202.80002
-25.965601 57.390602 202.80002
-26.541 57.445599 203
-27.117401 57.500397 203.20001
-27.722 57.611801 203.60001
-28.301001 57.666599 203.80002
-28.824402 57.6082 203.60001
-29.3468 57.549797 203.39999
-29.8974 57.547997 203.39999
-30.4778 57.602798 203.60001
-30.967798 57.487797 203.20001
-31.517801 57.485802 203.20001
-32.099197 57.5406 203.39999
-32.713802 57.651798 203.80002
-33.265202 57.649796 203.80002
-33.783401 57.591404 203.60001
-34.334 57.589401 203.60001
-34.850601 57.530998 203.39999
-35.365799 57.472401 203.20001
-35.915398 57.470398 203.20001
-36.465 57.468403 203.20001
-37.0508 57.522999 203.39999
-37.563801 57.4646 203.20001
-38.188202 57.5756 203.60001
-38.776798 57.630199 203.80002
-39.366402 57.684795 204
-39.917801 57.6828 204
-40.4692 57.680798 204
-41.060799 57.735401 204.20001
-41.5718 57.677002 204
-42.081799 57.618397 203.80002
-42.590801 57.560001 203.60001
-43.098598 57.5014 203.39999
-43.733997 57.612598 203.80002
-44.284599 57.6106 203.80002
-44.791203 57.5522 203.60001
-45.3414 57.5504 203.60001
-45.936401 57.605 203.80002
-46.5326 57.659603 204
-47.083603 57.657803 204
-47.6814 57.712399 204.20001
-48.280201 57.7672 204.39999
-48.880199 57.822002 204.60001
-49.384399 57.763599 204.39999
-49.936398 57.762001 204.39999
-50.439201 57.703602 204.20001
-50.990601 57.702 204.20001
-51.542198 57.700401 204.20001
-52.1446 57.755203 204.39999
-52.748196 57.8102 204.60001
-53.353001 57.864998 204.8
-53.853397 57.806999 204.60001
-54.405998 57.805599 204.60001
-54.904999 57.747604 204.39999
-55.402798 57.689602 204.20001
-55.899399 57.631802 204
-56.505798 57.687004 204.20001
-57.169197 57.798801 204.60001
-57.778198 57.854004 204.8
-58.331402 57.852798 204.8
78.149399 56.085598 196.59999
77.850403 56.254204 197.2
77.3918 56.309002 197.39999
76.932198 56.363998 197.59999
76.471603 56.418999 197.8
75.933403 56.417 197.8
75.471802 56.472198 198
74.857803 56.413399 197.8
74.470398 56.526001 198.2
74.006599 56.581402 198.39999
73.541603 56.637199 198.59999
72.781799 56.464798 198
72.171402 56.406601 197.8
71.779404 56.519596 198.2
71.529404 56.746799 199
70.918205 56.688797 198.8
70.166801 56.516998 198.2
69.629402 56.516201 198.2
69.161804 56.572598 198.39999
68.693398 56.6292 198.59999
68.0868 56.5718 198.39999
67.5494 56.5714 198.39999
67.012001 56.571198 198.39999
66.474998 56.570999 198.39999
66.004196 56.628002 198.59999
65.466797 56.628002 198.59999
65.060005 56.742199 199
64.456802 56.685196 198.8
63.919003 56.685402 198.8
63.381203 56.685799 198.8
62.970001 56.800198 199.2
62.431198 56.800598 199.2
61.768402 56.686996 198.8
61.169201 56.6306 198.59999
60.693401 56.688202 198.8
60.216599 56.745998 199
59.618801 56.6898 198.8
59.021996 56.633598 198.59999
58.544201 56.691402 198.8
58.007004 56.692398 198.8
57.527603 56.750401 199
57.047401 56.808399 199.2
56.565796 56.8666 199.39999
56.083401 56.924801 199.60001
55.544197 56.925797 199.60001
55.005001 56.927002 199.60001
54.411201 56.871403 199.39999
53.872597 56.872601 199.39999
53.280598 56.817001 199.2
52.742397 56.818401 199.2
52.309196 56.933804 199.60001
51.718201 56.878197 199.39999
51.128399 56.822598 199.2
50.4888 56.710201 198.8
49.951801 56.711601 198.8
49.5144 56.8274 199.2
49.0746 56.943203 199.60001
48.438202 56.830605 199.2
47.9482 56.889404 199.39999
47.457199 56.948204 199.60001
47.012001 57.064003 200
46.471802 57.065804 200
45.885597 57.010399 199.8
45.391197 57.069199 200
44.850998 57.070999 200
44.222 56.958801 199.60001
43.639 56.903603 199.39999
43.100201 56.905399 199.39999
42.646801 57.021397 199.8
42.1912 57.137402 200.20001
41.6502 57.139404 200.20001
41.1092 57.141201 200.20001
40.487 57.029003 199.8
39.946999 57.030804 199.8
39.367599 56.975597 199.60001
38.867001 57.034599 199.8
38.288399 56.979401 199.60001
37.748798 56.981403 199.60001
37.209202 56.983398 199.60001
36.7062 57.0424 199.8
36.202202 57.101398 200
35.697002 57.1604 200.20001
35.155602 57.162201 200.20001
34.545002 57.050003 199.8
33.9706 56.994801 199.60001
33.464199 57.053799 199.8
32.9566 57.112801 200
32.4804 57.228798 200.39999
31.938202 57.230801 200.39999
31.364599 57.1754 200.20001
30.822798 57.177197 200.20001
30.281002 57.179199 200.20001
29.739201 57.181 200.20001
29.168201 57.125599 200
28.655401 57.184601 200.20001
28.0854 57.1292 200
27.599001 57.245201 200.39999
27.029402 57.189796 200.20001
26.460999 57.134403 200
25.919399 57.135998 200
25.377802 57.137604 200
24.8608 57.196404 200.20001
24.294399 57.140999 200
23.7764 57.199596 200.20001
23.280399 57.315601 200.60001
22.7596 57.374199 200.79999
22.193401 57.3186 200.60001
21.6716 57.377201 200.79999
21.1064 57.321602 200.60001
20.5832 57.380199 200.79999
20.019201 57.324398 200.60001
19.45606 57.2686 200.39999
18.931761 57.327198 200.60001
18.40634 57.385601 200.79999
17.897581 57.501202 201.20001
17.35214 57.502399 201.20001
16.78994 57.446598 201
16.24498 57.447796 201
15.715601 57.506001 201.20001
15.20018 57.621403 201.60001
14.653481 57.622601 201.60001
14.09276 57.566399 201.39999
13.51966 57.453197 201
13.000319 57.568401 201.39999
12.46642 57.626598 201.60001
11.94324 57.741802 202
11.38402 57.6856 201.79999
10.82586 57.629196 201.60001
10.26876 57.5728 201.39999
9.7320404 57.630802 201.60001
9.2033195 57.745804 202
8.6638403 57.8036 202.20001
8.1152401 57.804195 202.20001
7.5516405 57.690601 201.79999
6.9971399 57.634003 201.60001
6.4501004 57.634399 201.60001
5.9089198 57.691998 201.79999
5.36132 57.6926 201.79999
4.8232398 57.807201 202.20001
4.27878 57.864796 202.39999
3.7331998 57.922203 202.60001
3.1802402 57.865398 202.39999
2.6335602 57.922798 202.60001
2.0796399 57.808601 202.20001
1.532406 57.865799 202.39999
0.98214597 57.8088 202.20001
0.433828 57.866001 202.39999
-0.1153496 57.8088 202.20001
-0.66409802 57.8088 202.20001
-1.212844 57.8088 202.20001
-1.765072 57.923 202.60001
-2.3103199 57.808601 202.20001
-2.8590598 57.808399 202.20001
-3.4077997 57.807999 202.20001
-3.96434 57.922203 202.60001
-4.5007601 57.750202 202
-5.04392 57.692802 201.79999
-5.586 57.635201 201.60001
-6.1391397 57.691799 201.79999
-6.6933403 57.748596 202
-7.2414398 57.748001 202
-7.7895403 57.747398 202
-8.32936 57.689602 201.79999
-8.8680792 57.631802 201.60001
-9.4337206 57.745396 202
-9.9916201 57.801998 202.20001
-10.54016 57.801201 202.20001
-11.05578 57.628799 201.60001
-11.60264 57.627998 201.60001
-12.13744 57.57 201.39999
-12.69632 57.626198 201.60001
-13.25624 57.6824 201.79999
-13.817241 57.738602 202
-14.365061 57.737602 202
-14.912841 57.736404 202
-15.460619 57.735401 202
-16.0242 57.791401 202.20001
-16.58884 57.847397 202.39999
-17.15452 57.903397 202.60001
-17.703781 57.902 202.60001
-18.21698 57.7864 202.20001
-18.765079 57.785202 202.20001
-19.29406 57.726597 202
-19.82192 57.668198 201.79999
-20.3486 57.6096 201.60001
-20.9158 57.665401 201.79999
-21.483799 57.721001 202
-22.0748 57.833801 202.39999
-22.623201 57.832199 202.39999
-23.1716 57.830799 202.39999
-23.719799 57.829201 202.39999
-24.292 57.8848 202.60001
-24.816401 57.826 202.39999
-25.364599 57.824398 202.39999
-25.912601 57.822598 202.39999
-26.513 57.935204 202.80002
-27.062199 57.933403 202.80002
-27.6658 58.046001 203.20001
-28.216002 58.044201 203.20001
-28.7094 57.9282 202.80002
-29.2584 57.926399 202.80002
-29.8074 57.924599 202.80002
-30.3862 57.98 203
-30.874601 57.8638 202.60001
-31.4228 57.862003 202.60001
-32.002602 57.917202 202.80002
-32.551399 57.915401 202.80002
-33.099998 57.913399 202.80002
-33.648602 57.911598 202.80002
-34.231003 57.966797 203
-34.8144 58.021999 203.20001
-35.329201 57.962799 203
-35.8428 57.903801 202.80002
-36.427002 57.959003 203
-36.976002 57.957001 203
-37.487999 57.898003 202.80002
-38.073799 57.953201 203
-38.660603 58.008404 203.20001
-39.287201 58.120602 203.60001
-39.837601 58.118599 203.60001
-40.387802 58.116604 203.60001
-40.938198 58.114601 203.60001
-41.447601 58.055599 203.39999
-41.955997 57.996601 203.20001
-42.505199 57.994801 203.20001
-43.012001 57.935799 203
-43.603401 57.990997 203.20001
-44.195801 58.046196 203.39999
-44.745399 58.044201 203.39999
-45.294998 58.0424 203.39999
-45.844398 58.0406 203.39999
-46.439598 58.095802 203.60001
-46.989597 58.094002 203.60001
-47.586201 58.1492 203.80002
-48.136799 58.1474 203.80002
-48.735001 58.202797 204
-49.1894 58.086998 203.60001
-49.7882 58.142197 203.80002
-50.388 58.197601 204
-50.938999 58.196003 204
-51.439602 58.137398 203.80002
-52.041 58.192802 204
-52.695202 58.305401 204.39999
-53.195202 58.246796 204.20001
-53.693996 58.188202 204
-54.138599 58.0728 203.60001
-54.795998 58.185398 204
-55.292797 58.126999 203.80002
-55.898201 58.1828 204
-56.559799 58.295601 204.39999
77.992805 56.504601 196.2
77.537003 56.559597 196.39999
77.158806 56.672401 196.8
76.7006 56.727802 197
76.241798 56.783199 197.2
75.628403 56.723602 197
75.244804 56.836803 197.39999
74.783798 56.892597 197.59999
74.396805 57.006199 198
73.784203 56.946999 197.8
73.246803 56.945599 197.8
72.6362 56.8866 197.59999
72.1726 56.943001 197.8
71.9254 57.172001 198.59999
71.386406 57.170998 198.59999
70.490997 56.882202 197.59999
69.8134 56.766201 197.2
69.348999 56.822998 197.39999
68.883598 56.879997 197.59999
68.417198 56.936802 197.8
67.812599 56.878799 197.59999
67.345398 56.936001 197.8
66.809601 56.935799 197.8
66.207001 56.878002 197.59999
65.671997 56.877796 197.59999
65.137199 56.877602 197.59999
64.798401 57.0504 198.2
64.197197 56.993 198
63.661404 56.993 198
63.125801 56.993401 198
62.716801 57.108803 198.39999
62.242802 57.166801 198.59999
61.6436 57.1096 198.39999
60.983997 56.994999 198
60.448601 56.995602 198
60.034401 57.111401 198.39999
59.438004 57.054401 198.2
58.902401 57.055199 198.2
58.425598 57.113602 198.39999
57.947803 57.172001 198.59999
57.353199 57.115398 198.39999
56.8172 57.116402 198.39999
56.3946 57.232601 198.8
55.969799 57.348801 199.2
55.3204 57.234798 198.8
54.783203 57.235802 198.8
54.246201 57.237 198.8
53.763199 57.296001 199
53.225601 57.297199 199
52.635201 57.240997 198.8
52.1506 57.300003 199
51.612999 57.301403 199
51.0242 57.245201 198.8
50.436401 57.189201 198.59999
49.900002 57.190598 198.59999
49.4132 57.249802 198.8
48.974602 57.366596 199.2
48.388 57.3106 199
47.850399 57.312202 199
47.2654 57.256199 198.8
46.7752 57.315601 199
46.237801 57.317196 199
45.745998 57.376598 199.2
45.208 57.378399 199.2
44.6698 57.380001 199.2
44.042999 57.266598 198.8
43.505798 57.268398 198.8
42.968601 57.270199 198.8
42.5168 57.387398 199.2
42.062801 57.504398 199.60001
41.523598 57.506199 199.60001
40.943001 57.450401 199.39999
40.323002 57.336998 199
39.825203 57.396603 199.2
39.2868 57.398403 199.2
38.787201 57.458 199.39999
38.209801 57.402199 199.2
37.6334 57.346397 199
37.132801 57.406002 199.2
36.630802 57.465599 199.39999
36.127998 57.525002 199.60001
35.623802 57.584602 199.8
35.083401 57.586403 199.8
34.543201 57.588398 199.8
33.934601 57.475002 199.39999
33.395203 57.476799 199.39999
32.855801 57.4786 199.39999
32.316399 57.480598 199.39999
31.7132 57.367004 199
31.174799 57.368797 199
30.6978 57.485996 199.39999
30.1884 57.545399 199.60001
29.648399 57.547199 199.60001
29.049799 57.433804 199.2
28.539198 57.493198 199.39999
28.027401 57.552601 199.60001
27.514601 57.612003 199.8
26.9468 57.555996 199.60001
26.379799 57.5 199.39999
25.84 57.501602 199.39999
25.299999 57.503201 199.39999
24.7848 57.562603 199.60001
24.2442 57.564198 199.60001
23.7272 57.623398 199.8
23.2092 57.682598 200
22.690199 57.741802 200.20001
22.1478 57.743401 200.20001
21.627001 57.802601 200.39999
21.062799 57.746399 200.20001
20.520399 57.747799 200.20001
19.93792 57.633801 199.8
19.37702 57.5774 199.60001
18.8738 57.694202 200
18.368361 57.810802 200.39999
17.860741 57.927601 200.79999
17.29916 57.871002 200.60001
16.72192 57.757004 200.20001
16.19532 57.815804 200.39999
15.6676 57.874603 200.60001
15.15384 57.991199 201
14.608801 57.992203 201
14.06374 57.993198 201
13.505199 57.936604 200.79999
12.973539 57.995201 201
12.44078 58.053799 201.20001
11.90688 58.1124 201.39999
11.33804 57.998001 201
10.79284 57.998802 201
10.2374 57.941799 200.79999
9.7023401 58.000202 201
9.1661806 58.0588 201.20001
8.6289005 58.117001 201.39999
8.0744801 58.060001 201.20001
7.5286202 58.0606 201.20001
6.9896603 58.118801 201.39999
6.4368205 58.0616 201.20001
5.8850398 58.004398 201
5.3343401 57.947201 200.79999
4.8037996 58.120602 201.39999
4.2615399 58.178799 201.60001
3.7181799 58.236801 201.79999
3.1642799 58.121597 201.39999
2.61778 58.121799 201.39999
2.06918 58.064198 201.20001
1.524716 58.1222 201.39999
0.97818404 58.1222 201.39999
0.43207997 58.18 201.60001
-0.11499861 58.18 201.60001
-0.662076 58.18 201.60001
-1.209152 58.179802 201.60001
-1.7562261 58.179802 201.60001
-2.3010199 58.121998 201.39999
-2.8475399 58.121799 201.39999
-3.3940401 58.121403 201.39999
-3.9444799 58.178799 201.60001
-4.4826002 58.063198 201.20001
-5.0285397 58.062798 201.20001
-5.5689397 58.004601 201
-6.12042 58.062 201.20001
-6.6596999 58.003799 201
-7.2122202 58.060997 201.20001
-7.7504001 58.002598 201
-8.2874603 57.944401 200.79999
-8.8322201 57.9436 200.79999
-9.3956404 58.058399 201.20001
-9.9414606 58.057602 201.20001
-10.47682 57.999199 201
-11.01108 57.9408 200.79999
-11.55574 57.939796 200.79999
-12.10038 57.938999 200.79999
-12.645 57.937996 200.79999
-13.20272 57.994801 201
-13.761499 58.051598 201.20001
-14.30712 58.050602 201.20001
-14.852699 58.0494 201.20001
-15.398259 58.048397 201.20001
-15.95964 58.105 201.39999
-16.522079 58.1614 201.60001
-17.08556 58.218002 201.79999
-17.615139 58.159 201.60001
-18.125599 58.0424 201.20001
-18.68952 58.098801 201.39999
-19.216301 58.039803 201.20001
-19.741961 57.980801 201
-20.246401 57.863998 200.60001
-20.8314 57.977997 201
-21.4398 58.149601 201.60001
-22.007801 58.205803 201.79999
-22.577 58.262001 202
-23.0784 58.144997 201.60001
-23.647999 58.201199 201.79999
-24.218599 58.257198 202
-24.7656 58.2556 202
-25.287601 58.196404 201.79999
-25.782999 58.079399 201.39999
-26.354599 58.135403 201.60001
-26.927 58.191402 201.79999
-27.555201 58.362598 202.39999
-28.103001 58.361 202.39999
-28.622601 58.301399 202.20001
-29.17 58.299603 202.20001
-29.746801 58.355598 202.39999
-30.3244 58.4114 202.60001
-30.811798 58.294201 202.20001
-31.327999 58.234798 202
-31.874599 58.232998 202
-32.420998 58.231003 202
-33.000202 58.286797 202.20001
-33.547199 58.284996 202.20001
-34.1278 58.340801 202.39999
-34.6754 58.338799 202.39999
-35.188 58.2794 202.20001
-35.734798 58.277397 202.20001
-36.281601 58.275597 202.20001
-36.864799 58.331196 202.39999
-37.375198 58.271599 202.20001
-37.9594 58.3274 202.39999
-38.544601 58.383202 202.60001
-39.169399 58.496399 203
-39.679001 58.437 202.80002
-40.2272 58.434998 202.80002
-40.735199 58.375401 202.60001
-41.242001 58.315998 202.39999
-41.789001 58.314003 202.39999
-42.335999 58.312202 202.39999
-42.925201 58.367802 202.60001
-43.429802 58.308399 202.39999
-44.063602 58.421803 202.80002
-44.611599 58.420002 202.80002
-45.203999 58.4758 203
-45.707397 58.416401 202.80002
-46.3008 58.472198 203
-46.757 58.355202 202.60001
-47.350998 58.411003 202.80002
-47.851601 58.351601 202.60001
-48.542198 58.522804 203.20001
-48.9944 58.406002 202.80002
-49.639999 58.519398 203.20001
-50.188797 58.517803 203.20001
-50.737602 58.516197 203.20001
-51.235996 58.457001 203
-51.784401 58.455597 203
-52.435799 58.569199 203.39999
-52.985199 58.567799 203.39999
-53.587402 58.623802 203.60001
-54.084003 58.565002 203.39999
-54.794598 58.736401 204
-55.345798 58.735001 204
77.381599 56.976997 196
77.004402 57.090801 196.39999
76.547203 57.146603 196.59999
76.011803 57.144398 196.59999
75.476799 57.142197 196.59999
75.017998 57.198399 196.8
74.634201 57.312798 197.2
74.173203 57.369202 197.39999
73.562004 57.309402 197.2
72.952003 57.249599 197
72.490402 57.306404 197.2
72.173798 57.479401 197.8
71.854195 57.652401 198.39999
71.028 57.4188 197.59999
70.277802 57.243401 197
69.743401 57.242603 197
69.279404 57.299797 197.2
68.814598 57.357197 197.39999
68.279396 57.356602 197.39999
67.813202 57.414001 197.59999
67.277802 57.413601 197.59999
66.742401 57.413204 197.59999
66.140198 57.354801 197.39999
65.5392 57.296402 197.2
65.005402 57.296402 197.2
64.536797 57.354401 197.39999
64.067398 57.412601 197.59999
63.532799 57.412601 197.59999
62.998001 57.412796 197.59999
62.589996 57.529198 198
62.116997 57.587601 198.2
61.518799 57.529999 198
60.921799 57.472198 197.8
60.325802 57.414597 197.59999
59.8522 57.473396 197.8
59.317398 57.473999 197.8
58.842201 57.532799 198
58.248001 57.475399 197.8
57.830204 57.592602 198.2
57.294601 57.593399 198.2
56.758999 57.594196 198.2
56.279999 57.653397 198.39999
55.800201 57.712601 198.59999
55.152203 57.597397 198.2
54.616802 57.5984 198.2
54.081398 57.599598 198.2
53.653996 57.717003 198.59999
53.063999 57.660198 198.39999
52.581001 57.719601 198.59999
51.992001 57.662804 198.39999
51.455997 57.664196 198.39999
50.9202 57.6656 198.39999
50.384201 57.667 198.39999
49.898602 57.726597 198.59999
49.362 57.728203 198.59999
48.8256 57.729797 198.59999
48.289001 57.731201 198.59999
47.800602 57.791 198.8
47.216202 57.734402 198.59999
46.6796 57.736198 198.59999
46.143002 57.737797 198.59999
45.652401 57.7976 198.8
45.115398 57.7994 198.8
44.5784 57.801003 198.8
43.996799 57.744598 198.59999
43.416603 57.688202 198.39999
42.880402 57.690002 198.39999
42.387001 57.75 198.59999
41.934601 57.868202 199
41.396801 57.869999 199
40.818001 57.813602 198.8
40.1996 57.699001 198.39999
39.663403 57.700996 198.39999
39.166599 57.761002 198.59999
38.7076 57.879196 199
38.131203 57.8228 198.8
37.5182 57.708401 198.39999
36.9818 57.710201 198.39999
36.518799 57.828403 198.8
36.017399 57.888401 199
35.479401 57.890396 199
34.9762 57.950401 199.2
34.472 58.010399 199.39999
33.9328 58.012199 199.39999
33.393402 58.014 199.39999
32.820999 57.957798 199.2
32.2822 57.959599 199.2
31.6796 57.845001 198.8
31.110201 57.788597 198.59999
30.6036 57.848602 198.8
30.096001 57.9086 199
29.557402 57.9104 199
28.989601 57.853802 198.8
28.508801 57.972 199.2
27.997601 58.032001 199.39999
27.4578 58.033596 199.39999
26.890999 57.9772 199.2
26.351801 57.978802 199.2
25.8382 58.038597 199.39999
25.273001 57.981998 199.2
24.708601 57.925396 199
24.1696 57.927002 199
23.6544 57.986801 199.2
23.1614 58.104801 199.60001
22.6206 58.106201 199.60001
22.0798 58.1078 199.60001
21.5392 58.1092 199.60001
20.9984 58.1106 199.60001
20.457401 58.112198 199.60001
19.896641 58.055199 199.39999
19.336861 57.998402 199.2
18.83474 58.116196 199.60001
18.330421 58.234001 200
17.80612 58.293404 200.20001
17.263439 58.294601 200.20001
16.687321 58.179401 199.8
16.16184 58.2388 200
15.6196 58.240002 200
15.07736 58.240997 200
14.5496 58.3004 200.20001
14.006761 58.301399 200.20001
13.46386 58.302402 200.20001
12.908059 58.244999 200
12.37802 58.304203 200.20001
11.8469 58.363403 200.39999
11.29208 58.306004 200.20001
10.74908 58.306801 200.20001
10.20606 58.307602 200.20001
9.6823196 58.424801 200.60001
9.1472797 58.483799 200.79999
8.6111202 58.542599 201
8.0658598 58.543198 201
7.5280399 58.602203 201.20001
6.9821997 58.6026 201.20001
6.4299397 58.544998 201
5.87288 58.428799 200.60001
5.32862 58.429401 200.60001
4.7891197 58.487999 200.79999
4.2485199 58.546604 201
3.70684 58.605202 201.20001
3.1514802 58.430599 200.60001
2.6071799 58.430801 200.60001
2.0608001 58.372803 200.39999
1.5200579 58.489399 200.79999
0.97519594 58.489399 200.79999
0.43076003 58.547802 201
-0.1146476 58.547802 201
-0.66005599 58.547802 201
-1.205462 58.5476 201
-1.7526081 58.605801 201.20001
-2.2939799 58.489197 200.79999
-2.83884 58.489002 200.79999
-3.3870399 58.547001 201
-3.9363399 58.604996 201.20001
-4.4688997 58.429802 200.60001
-5.0081801 58.371197 200.39999
-5.5518999 58.3708 200.39999
-6.10778 58.487 200.79999
-6.6393194 58.369999 200.39999
-7.1829996 58.3694 200.39999
-7.7189603 58.310596 200.20001
-8.2620802 58.310001 200.20001
-8.8139801 58.367599 200.39999
-9.3762598 58.483398 200.79999
-9.9407206 58.599197 201.20001
-10.47604 58.540199 201
-10.9993 58.423 200.60001
-11.531879 58.3638 200.39999
-12.07538 58.363003 200.39999
-12.61888 58.362198 200.39999
-13.18862 58.4776 200.79999
-13.73314 58.476597 200.79999
-14.27764 58.475601 200.79999
-14.836881 58.532799 201
-15.381861 58.531803 201
-15.926801 58.530598 201
-16.488119 58.587803 201.20001
-17.05048 58.644802 201.39999
-17.57896 58.5854 201.20001
-18.07028 58.409397 200.60001
-18.613981 58.407997 200.60001
-19.17676 58.464996 200.79999
-19.720959 58.463596 200.79999
-20.245001 58.403999 200.60001
-20.8092 58.4608 200.79999
-21.3958 58.576 201.20001
-21.962801 58.632599 201.39999
-22.486 58.573002 201.20001
-23.031 58.5714 201.20001
-23.5996 58.628201 201.39999
-24.168999 58.684803 201.60001
-24.690599 58.625 201.39999
-25.235998 58.623398 201.39999
-25.730198 58.505398 201
-26.3006 58.561802 201.20001
-26.845398 58.5602 201.20001
-27.471798 58.7332 201.79999
-27.990202 58.673199 201.60001
-28.507799 58.613197 201.39999
-29.023998 58.553398 201.20001
-29.656801 58.726196 201.79999
-30.2328 58.7826 202
-30.809998 58.839001 202.20001
-31.294998 58.720798 201.79999
-31.809601 58.660801 201.60001
-32.322998 58.6008 201.39999
-32.900398 58.657001 201.60001
-33.412598 58.597 201.39999
-33.991199 58.653404 201.60001
-34.5364 58.651398 201.60001
-35.0816 58.649601 201.60001
-35.697601 58.764202 202
-36.243801 58.762199 202
-36.826401 58.818604 202.20001
-37.336201 58.7584 202
-37.882401 58.756603 202
-38.504601 58.871002 202.39999
-39.090401 58.9272 202.60001
-39.598801 58.867199 202.39999
-40.066601 58.749001 202
-40.612598 58.747204 202
-41.1586 58.745201 202
-41.7458 58.801598 202.20001
-42.250401 58.7416 202
-42.7962 58.739799 202
-43.342201 58.737801 202
-43.9314 58.794201 202.20001
-44.521801 58.850597 202.39999
-45.0686 58.848797 202.39999
-45.5704 58.788799 202.20001
-46.070999 58.729 202
-46.663002 58.785404 202.20001
-47.255798 58.841801 202.39999
-47.708202 58.723801 202
-48.397202 58.896603 202.60001
-48.896198 58.8368 202.39999
-49.491798 58.893402 202.60001
-49.989597 58.833599 202.39999
-50.586403 58.890198 202.60001
-51.133602 58.888798 202.60001
-51.680798 58.887203 202.60001
-52.331196 59.001999 203
-52.983803 59.116798 203.39999
77.600601 57.277603 195.2
77.226196 57.392399 195.59999
76.771599 57.448399 195.79999
76.316002 57.504601 196
75.782196 57.502399 196
75.325203 57.5588 196.2
74.791405 57.556801 196.2
74.333206 57.613403 196.39999
73.723999 57.552803 196.2
73.190598 57.551201 196.2
72.657402 57.549603 196.2
72.418396 57.7826 197
72.029198 57.898598 197.39999
71.493202 57.897198 197.39999
70.6698 57.661404 196.59999
70.1362 57.660198 196.59999
69.531998 57.600601 196.39999
69.069603 57.658398 196.59999
68.5364 57.6576 196.59999
68.1418 57.774002 197
67.607803 57.773399 197
67.073799 57.772797 197
66.472603 57.713802 196.8
65.9394 57.713402 196.8
65.340004 57.6544 196.59999
64.807602 57.654202 196.59999
64.275398 57.654202 196.59999
63.807999 57.712799 196.8
63.275402 57.712799 196.8
62.870399 57.830204 197.2
62.400002 57.889004 197.39999
61.9286 57.947803 197.59999
61.394203 57.9482 197.59999
60.736603 57.8312 197.2
60.1422 57.772999 197
59.548996 57.715 196.8
59.076797 57.774197 197
58.603798 57.833397 197.2
58.129604 57.892799 197.39999
57.595997 57.893597 197.39999
57.062401 57.894402 197.39999
56.528999 57.895203 197.39999
55.995399 57.896202 197.39999
55.518196 57.955803 197.59999
54.9286 57.898201 197.39999
54.450397 57.957798 197.59999
53.970997 58.017601 197.8
53.490604 58.0774 198
52.955597 58.078598 198
52.367802 58.021198 197.8
51.833397 58.022602 197.8
51.299 58.0238 197.8
50.764801 58.0252 197.8
50.331997 58.143997 198.2
49.746201 58.086597 198
49.211399 58.0882 198
48.578201 57.972198 197.59999
48.044403 57.973801 197.59999
47.6068 58.092804 198
47.0718 58.094196 198
46.536999 58.095802 198
46.001999 58.097603 198
45.513 58.157803 198.2
44.9776 58.159603 198.2
44.397198 58.1026 198
43.862198 58.104198 198
43.327202 58.105999 198
42.749001 58.049 197.8
42.214401 58.0508 197.8
41.722198 58.111202 198
41.2286 58.1716 198.2
40.693001 58.173401 198.2
40.116798 58.116604 198
39.5816 58.118404 198
39.046402 58.120197 198
38.589001 58.239399 198.39999
38.052601 58.241199 198.39999
37.478401 58.184399 198.2
36.905399 58.127396 198
36.443401 58.246796 198.39999
35.907001 58.248596 198.39999
35.370399 58.250397 198.39999
34.868999 58.310997 198.59999
34.3666 58.371399 198.8
33.862801 58.431999 199
33.3246 58.4338 199
32.753399 58.376999 198.8
32.183201 58.32 198.59999
31.5502 58.145599 198
31.014601 58.1474 198
30.4788 58.1492 198
29.9732 58.209599 198.2
29.4368 58.211399 198.2
28.9004 58.213001 198.2
28.4212 58.332199 198.59999
27.9118 58.392799 198.8
27.346001 58.335602 198.59999
26.808399 58.337402 198.59999
26.2442 58.280201 198.39999
25.733 58.340599 198.59999
25.169798 58.283401 198.39999
24.632601 58.284996 198.39999
24.0952 58.286602 198.39999
23.5816 58.346802 198.59999
23.0902 58.466 199
22.5284 58.4086 198.8
21.99 58.410198 198.8
21.4298 58.352798 198.59999
20.8918 58.354198 198.59999
20.374001 58.414398 198.8
19.835421 58.415802 198.8
19.277281 58.358402 198.59999
18.757959 58.4184 198.8
18.237499 58.478397 199
17.698141 58.479603 199
17.175999 58.5396 199.2
16.63604 58.540798 199.2
16.1122 58.6008 199.39999
15.540401 58.484398 199
15.01596 58.544201 199.2
14.475881 58.5452 199.2
13.94978 58.604996 199.39999
13.409101 58.605999 199.39999
12.8684 58.606998 199.39999
12.340019 58.666801 199.60001
11.81056 58.726398 199.8
11.25742 58.6684 199.60001
10.71608 58.669197 199.60001
10.16452 58.611202 199.39999
9.6429806 58.729599 199.8
9.1101599 58.789001 200
8.5762205 58.8484 200.20001
8.0251198 58.790199 200
7.49754 58.908401 200.39999
6.9608598 58.9678 200.60001
6.4166598 58.968197 200.60001
5.8607397 58.8512 200.20001
5.3176003 58.851601 200.20001
4.76968 58.793198 200
4.2312999 58.852203 200.20001
3.6881399 58.8526 200.20001
3.1449602 58.852798 200.20001
2.59918 58.794201 200
2.0544801 58.735596 199.8
1.515402 58.853401 200.20001
0.97220802 58.853401 200.20001
0.42901397 58.853603 200.20001
-0.1140684 58.794804 200
-0.65672201 58.794804 200
-1.1993721 58.794601 200
-1.7420219 58.794601 200
-2.2846601 58.794395 200
-2.8272998 58.794201 200
-3.3766799 58.911598 200.39999
-3.9204001 58.911198 200.39999
-4.4551997 58.793404 200
-4.9878001 58.675404 199.60001
-5.5237799 58.616196 199.39999
-6.0769 58.733398 199.8
-6.6123204 58.674198 199.60001
-7.1538 58.673603 199.60001
-7.69526 58.673 199.60001
-8.2449598 58.731197 199.8
-8.7957201 58.789402 200
-9.3382206 58.788799 200
-9.8905802 58.846802 200.20001
-10.43358 58.846004 200.20001
-10.97656 58.8452 200.20001
-11.507999 58.785599 200
-12.06246 58.843601 200.20001
-12.60536 58.842598 200.20001
-13.14826 58.841801 200.20001
-13.677441 58.781998 200
-14.219721 58.780998 200
-14.77676 58.838802 200.20001
-15.33484 58.8964 200.39999
-15.86228 58.836597 200.20001
-16.40502 58.8354 200.20001
-16.947701 58.834202 200.20001
-17.49036 58.832996 200.20001
-17.99696 58.714199 199.8
-18.55702 58.771801 200
-19.079941 58.711803 199.8
-19.641041 58.769203 200
-20.183001 58.767803 200
-20.7456 58.825199 200.20001
-21.330599 58.941196 200.60001
-21.874001 58.939804 200.60001
-22.395199 58.879601 200.39999
-22.915199 58.819401 200.20001
-23.480801 58.876598 200.39999
-24.0956 59.051399 201
-24.6154 58.990997 200.79999
-25.159201 58.989399 200.79999
-25.6772 58.929001 200.60001
-26.2204 58.927399 200.60001
-26.763599 58.9258 200.60001
-27.306601 58.924198 200.60001
-27.8498 58.922398 200.60001
-28.392801 58.920597 200.60001
-28.906801 58.860199 200.39999
-29.508001 58.976002 200.79999
-30.111399 59.091801 201.20001
-30.686199 59.148598 201.39999
-31.262201 59.205597 201.60001
-31.744598 59.086399 201.20001
-32.256802 59.025799 201
-32.833202 59.082802 201.20001
-33.344398 59.022202 201
-33.888199 59.020401 201
-34.397598 58.959801 200.79999
-34.940601 58.958 200.79999
-35.554401 59.073597 201.20001
-36.1702 59.189201 201.60001
-36.715401 59.187199 201.60001
-37.2234 59.126598 201.39999
-37.768002 59.124798 201.39999
-38.388599 59.240402 201.79999
-38.9342 59.238602 201.79999
-39.479603 59.236599 201.79999
-39.945801 59.117401 201.39999
-40.450001 59.056801 201.20001
-40.993801 59.055 201.20001
-41.5788 59.112 201.39999
-42.165001 59.168797 201.60001
-42.709801 59.166996 201.60001
-43.254601 59.165199 201.60001
-43.8862 59.2808 202
-44.475998 59.337799 202.20001
-45.0224 59.336002 202.20001
-45.433399 59.158199 201.60001
-45.9324 59.097801 201.39999
-46.5228 59.154804 201.60001
-47.114201 59.211803 201.79999
-47.612 59.151398 201.60001
-48.252201 59.2672 202
-48.798 59.265602 202
-49.441399 59.381401 202.39999
-49.938801 59.321201 202.20001
-50.584801 59.437 202.60001
-51.081596 59.376801 202.39999
-51.679401 59.4342 202.60001
-52.278202 59.491402 202.80002
77.070999 57.805599 195.2
76.617203 57.862198 195.39999
76.162598 57.9188 195.59999
75.629799 57.916405 195.59999
75.097198 57.914196 195.59999
74.564598 57.911999 195.59999
74.032402 57.909798 195.59999
73.500404 57.907997 195.59999
72.968399 57.906002 195.59999
72.510803 57.963596 195.79999
72.272804 58.198799 196.59999
71.884605 58.315598 197
71.132401 58.1366 196.39999
70.4552 58.016998 196
69.994598 58.074997 196.2
69.462196 58.073799 196.2
69.000206 58.132 196.39999
68.4674 58.131199 196.39999
68.073204 58.248798 196.8
67.539803 58.248001 196.8
67.006393 58.247398 196.8
66.473 58.246796 196.8
66.073799 58.364803 197.2
65.473198 58.305199 197
64.873802 58.245804 196.8
64.210197 58.127201 196.39999
63.678402 58.126999 196.39999
63.146801 58.126999 196.39999
62.615196 58.126999 196.39999
62.210201 58.245598 196.8
61.740398 58.305 197
